# .PCD v0.7 - Point Cloud Data file format
VERSION 0.7
FIELDS x y z rgb
SIZE 4 4 4 4
TYPE F F F U
COUNT 1 1 1 1
WIDTH 1176
HEIGHT 1
VIEWPOINT 0 0 0 1 0 0 0
POINTS 1176
DATA ascii
0.18210337 0.18368001 0.87386703 2039583
0.18371838 0.18371838 0.8740496 2039583
0.18533409 0.18375677 0.87423223 2039583
0.18695046 0.18379517 0.87441492 2039583
0.18861593 0.18388081 0.87482232 2039583
0.19028977 0.18397309 0.87526137 2039583
0.1919653 0.18406549 0.87570095 2039583
0.19364466 0.18416001 0.87615067 2039583
0.19536771 0.18429424 0.87678921 2039583
0.19710918 0.18444352 0.87749946 2039583
0.19886318 0.18460207 0.87825376 2039583
0.20065068 0.18478897 0.87914294 2039583
0.2024439 0.18497814 0.88004297 2039583
0.2042893 0.1852117 0.88115412 2039583
0.20615222 0.18545739 0.88232303 2039583
0.2080694 0.18574779 0.88370454 2039583
0.21003991 0.18608099 0.88528979 2039583
0.21206303 0.18645541 0.88707113 2039583
0.21417756 0.18690401 0.8892054 2039583
0.21639605 0.18743598 0.89173627 2171169
0.21875055 0.18807705 0.89478612 2697513
0.22140209 0.18896222 0.89899743 3421236
0.22562033 0.19116196 0.90946275 8158332
0.12817432 0.19432881 0.9166609 2039583
0.12911776 0.19326544 0.91164488 2039583
0.13017313 0.19239426 0.90753549 2039583
0.13132733 0.19168897 0.9042086 2039583
0.13252419 0.19106248 0.9012534 2039583
0.1338104 0.19057846 0.89897025 2039583
0.13511454 0.19013123 0.89686066 2039583
0.13643792 0.18972138 0.89492732 2039583
0.13776316 0.18932363 0.89305115 2039583
0.13911761 0.1889748 0.8914057 2039583
0.14046712 0.18862729 0.88976645 2039583
0.14183475 0.18831167 0.88827765 2039583
0.14321105 0.18801451 0.88687593 2039583
0.14458299 0.18771824 0.88547844 2039583
0.14599355 0.18747805 0.88434541 2039583
0.14741929 0.18726236 0.88332796 2039583
0.14884177 0.18704714 0.88231277 2039583
0.15028124 0.18685763 0.88141882 2039583
0.15172422 0.1866764 0.88056397 2039583
0.1531644 0.18649553 0.87971079 2039583
0.15461376 0.18632941 0.87892723 2039583
0.15607436 0.18618008 0.87822282 2039583
0.15753265 0.18603101 0.87751967 2039583
0.15898994 0.18588376 0.87682509 2039583
0.16046883 0.1857644 0.87626207 2039583
0.16194583 0.18564522 0.87569988 2039583
0.16344523 0.18555377 0.87526852 2039583
0.16495393 0.18547451 0.87489462 2039583
0.16647391 0.18540934 0.87458718 2039583
0.16799283 0.18534419 0.87427992 2039583
0.16951069 0.18527912 0.87397295 2039583
0.17104407 0.18523206 0.87375093 2039583
0.17258412 0.185193 0.87356675 2039583
0.17412354 0.18515399 0.87338269 2039583
0.17566229 0.18511498 0.87319869 2039583
0.17724796 0.18512565 0.87324899 2039583
0.17883621 0.18513881 0.8733111 2039583
0.18042469 0.18515198 0.87337321 2039583
0.18201338 0.18516514 0.87343526 2039583
0.18362422 0.18520039 0.87360162 2039583
0.18523908 0.18523908 0.87378407 2039583
0.18687999 0.18530296 0.87408537 2039583
0.18852662 0.18537137 0.87440807 2039583
0.19019128 0.18545623 0.87480837 2039583
0.19186588 0.1855493 0.87524742 2039583
0.1935645 0.18566391 0.87578803 2039583
0.1952782 0.18579099 0.87638748 2039583
0.19699423 0.18591824 0.87698776 2039583
0.19875728 0.18608749 0.8777861 2039583
0.20054376 0.18627582 0.87867445 2039583
0.20234331 0.18647325 0.87960571 2039583
0.20418757 0.18670848 0.88071531 2039583
0.20605002 0.18695658 0.88188565 2039583
0.20796619 0.18724926 0.88326621 2039583
0.20992772 0.18757801 0.88481694 2039583
0.21193503 0.18794239 0.8865357 2039583
0.21404238 0.18838936 0.88864416 2039583
0.21622042 0.18889146 0.89101255 2039583
0.21856806 0.18953319 0.89403963 2434341
0.22118387 0.19039637 0.89811134 3158064
0.22470686 0.19202223 0.90578061 6184542
0.12815438 0.19595219 0.91651833 2039583
0.12906295 0.1948275 0.91125786 2039583
0.13010974 0.19393717 0.90709352 2039583
0.13125725 0.1932172 0.9037261 2039583
0.13249931 0.19265236 0.90108418 2039583
0.13378529 0.19216433 0.89880151 2039583
0.13507137 0.19168811 0.89657414 2039583
0.13639475 0.19127548 0.89464414 2039583
0.13771209 0.19086413 0.89272016 2039583
0.13905847 0.19050208 0.89102674 2039583
0.14040749 0.19015186 0.88938868 2039583
0.14176144 0.18981616 0.88781857 2039583
0.14313991 0.18952045 0.88643539 2039583
0.1445436 0.18926427 0.88523722 2039583
0.14595488 0.18902354 0.88411123 2039583
0.14738028 0.18880609 0.88309419 2039583
0.14880243 0.18858917 0.8820796 2039583
0.15022771 0.18838078 0.88110489 2039583
0.15167022 0.18819812 0.88025057 2039583
0.15310992 0.18801582 0.87939787 2039583
0.15454689 0.18783392 0.87854707 2039583
0.1560054 0.18768163 0.8778348 2039583
0.15746309 0.18753141 0.87713218 2039583
0.15891844 0.18738145 0.87643075 2039583
0.16040044 0.18726553 0.87588859 2039583
0.16190092 0.18717326 0.87545705 2039583
0.16339993 0.1870811 0.87502593 2039583
0.16489747 0.18698901 0.87459522 2039583
0.16641168 0.18691739 0.87426025 2039583
0.16793005 0.18685174 0.87395322 2039583
0.16944736 0.18678616 0.87364644 2039583
0.17096364 0.18672067 0.87334013 2039583
0.17250298 0.1866813 0.87315601 2039583
0.17404872 0.18664953 0.87300742 2039583
0.17561318 0.18663824 0.87295455 2039583
0.17717858 0.1866281 0.87290716 2039583
0.17876621 0.18664137 0.87296921 2039583
0.18035406 0.18665463 0.87303126 2039583
0.18194212 0.18666789 0.87309331 2039583
0.18353041 0.18668115 0.8731553 2039583
0.18516594 0.18674181 0.87343907 2039583
0.18681073 0.18681073 0.87376136 2039583
0.1884567 0.18687965 0.87408376 2039583
0.1901039 0.18694864 0.87440646 2039583
0.19177379 0.18703863 0.87482733 2039583
0.19348437 0.18716651 0.87542546 2039583
0.19519733 0.1872946 0.8760246 2039583
0.19691262 0.18742284 0.87662441 2039583
0.19867128 0.18759002 0.8774063 2039583
0.20043692 0.18776107 0.87820637 2039583
0.20224279 0.18796682 0.87916875 2039583
0.20408568 0.18820353 0.88027585 2039583
0.20594794 0.1884543 0.88144875 2039583
0.20786321 0.18874936 0.88282883 2039583
0.2098157 0.18907346 0.88434476 2039583
0.21182199 0.1894408 0.88606286 2039583
0.21390735 0.18987282 0.88808352 2039583
0.2160954 0.19038889 0.89049733 2039583
0.21844886 0.19104199 0.89355206 2236962
0.22105558 0.19190539 0.8975904 2894892
0.22452053 0.19349588 0.90502954 5987163
0.12815024 0.1975994 0.91648865 2039583
0.12901545 0.19639932 0.91092253 2039583
0.13005471 0.19549106 0.90670991 2039583
0.13125493 0.19484426 0.90371001 2039583
0.13248484 0.19425692 0.90098584 2039583
0.1337602 0.19374962 0.89863294 2039583
0.13503954 0.19326018 0.89636284 2039583
0.13635129 0.19282815 0.89435905 2039583
0.13766865 0.19241408 0.89243853 2039583
0.13899939 0.19202806 0.89064813 2039583
0.14034793 0.19167519 0.88901144 2039583
0.14171417 0.19135416 0.88752252 2039583
0.14311676 0.19108886 0.88629198 2039583
0.14452022 0.19083057 0.88509405 2039583
0.14591992 0.19057301 0.88389945 2039583
0.14734134 0.19034909 0.8828609 2039583
0.14876312 0.19013041 0.88184661 2039583
0.15018167 0.18991226 0.88083482 2039583
0.15161628 0.1897188 0.87993753 2039583
0.15305553 0.1895351 0.87908548 2039583
0.15449199 0.18935172 0.87823498 2039583
0.15593649 0.18918185 0.87744707 2039583
0.15740049 0.18903877 0.87678349 2039583
0.15888108 0.18891831 0.87622476 2039583
0.1603598 0.188798 0.87566674 2039583
0.16185603 0.18870044 0.87521428 2039583
0.16335467 0.18860756 0.87478346 2039583
0.16485181 0.18851474 0.87435299 2039583
0.16634952 0.18842433 0.87393367 2039583
0.16786733 0.18835819 0.87362683 2039583
0.16938408 0.18829206 0.87332016 2039583
0.17089976 0.18822601 0.87301379 2039583
0.1724364 0.18818401 0.87281901 2039583
0.17400062 0.18817261 0.87276614 2039583
0.17556462 0.18816119 0.87271315 2039583
0.17712846 0.18814979 0.87266028 2039583
0.1786962 0.1881427 0.87262738 2039583
0.18028343 0.18815607 0.87268943 2039583
0.18187088 0.18816943 0.87275141 2039583
0.18347938 0.18820417 0.87291253 2039583
0.18509927 0.1882499 0.8731246 2039583
0.18674143 0.1883173 0.87343723 2039583
0.18838678 0.18838678 0.87375951 2039583
0.19003335 0.18845631 0.87408197 2039583
0.1917125 0.18855675 0.87454778 2039583
0.19340433 0.18866791 0.87506336 2039583
0.19511655 0.18879698 0.87566203 2039583
0.19684391 0.18893853 0.87631851 2039583
0.19860567 0.18911059 0.87711656 2039583
0.20037074 0.18928303 0.8779164 2039583
0.20216928 0.18948415 0.87884921 2039583
0.20399831 0.1897105 0.87989902 2039583
0.20585065 0.18995485 0.88103235 2039583
0.20776269 0.19025013 0.88240188 2039583
0.2097096 0.1905726 0.88389754 2039583
0.21173014 0.19095661 0.88567865 2039583
0.21382956 0.19140549 0.88776058 2039583
0.21599457 0.19190596 0.89008182 2039583
0.21833952 0.19255772 0.89310479 2039583
0.22095506 0.19343685 0.89718223 2763306
0.22433451 0.19496708 0.90427965 5789784
0.12819411 0.19932117 0.91680241 2039583
0.12899548 0.19801217 0.91078156 2039583
0.13007668 0.19716026 0.90686303 2039583
0.13125254 0.1964712 0.90369368 2039583
0.1324825 0.19587903 0.90096986 2039583
0.13373536 0.19533467 0.89846605 2039583
0.13501427 0.19484095 0.89619511 2039583
0.13630787 0.19437985 0.8940742 2039583
0.1376249 0.19396257 0.89215493 2039583
0.1389433 0.19355686 0.89028877 2039583
0.1403275 0.19325101 0.88888198 2039583
0.14170733 0.19294615 0.88747972 2039583
0.14309347 0.19265658 0.8861478 2039583
0.14449686 0.19239637 0.884951 2039583
0.14589636 0.19213673 0.88375676 2039583
0.14730251 0.19189137 0.88262814 2039583
0.1487239 0.19167091 0.88161409 2039583
0.15014204 0.19145095 0.88060242 2039583
0.15156238 0.1912384 0.87962472 2039583
0.15300117 0.19105327 0.87877321 2039583
0.15443717 0.19086851 0.87792337 2039583
0.1558944 0.19071345 0.87721014 2039583
0.15737237 0.19058663 0.87662685 2039583
0.15885271 0.1904652 0.87606829 2039583
0.16033119 0.19034392 0.87551045 2039583
0.16181122 0.19022684 0.87497193 2039583
0.16330941 0.19013317 0.8745411 2039583
0.16480616 0.19003963 0.87411088 2039583
0.16630144 0.18994619 0.87368107 2039583
0.16780469 0.18986352 0.87330079 2039583
0.1693209 0.18979691 0.87299442 2039583
0.17085984 0.18975678 0.87280983 2039583
0.17240182 0.18972072 0.87264395 2039583
0.17395255 0.18969487 0.87252504 2039583
0.17551613 0.18968335 0.87247211 2039583
0.17707951 0.18967183 0.87241912 2039583
0.17864272 0.18966034 0.87236625 2039583
0.18021287 0.18965633 0.87234783 2039583
0.1818182 0.18968911 0.87249863 2039583
0.18343692 0.18973517 0.87271047 2039583
0.18505642 0.18978126 0.87292242 2039583
0.1866767 0.18982737 0.87313449 2039583
0.18831688 0.18989275 0.87343526 2039583
0.18997996 0.18997996 0.87383634 2039583
0.19166528 0.19008778 0.87433231 2039583
0.19335251 0.19019572 0.87482882 2039583
0.19504163 0.19030377 0.8753258 2039583
0.19677904 0.19045682 0.87602979 2039583
0.19854027 0.1906303 0.87682772 2039583
0.20030472 0.19080409 0.87762707 2039583
0.20211491 0.1910184 0.87861282 2039583
0.20394337 0.19124651 0.87966204 2039583
0.2058015 0.1914987 0.880822 2039583
0.20771298 0.19179627 0.88219076 2039583
0.20965682 0.19211899 0.8836751 2039583
0.21167672 0.192506 0.88545519 2039583
0.21375988 0.19294432 0.88747132 2039583
0.21592419 0.19344881 0.88979179 2039583
0.21826638 0.19410405 0.89280564 2039583
0.22085461 0.1949669 0.89677441 2500134
0.22414878 0.19643584 0.90353101 5592405
0.12823649 0.20104173 0.9171055 2039583
0.12901309 0.19968267 0.91090584 2039583
0.13010433 0.1988387 0.9070558 2039583
0.13125698 0.19810838 0.90372425 2039583
0.13248013 0.19750106 0.90095383 2039583
0.13371052 0.19691913 0.89829916 2039583
0.13498923 0.19642144 0.89602888 2039583
0.13626444 0.19593054 0.89378947 2039583
0.13759847 0.19553466 0.89198357 2039583
0.13895153 0.19517468 0.8903414 2039583
0.14032072 0.19484535 0.88883907 2039583
0.14170048 0.19453795 0.88743681 2039583
0.14307591 0.19423154 0.88603902 2039583
0.14447337 0.19396149 0.88480711 2039583
0.1458728 0.19369996 0.88361406 2039583
0.14726835 0.19343898 0.88242352 2039583
0.14868473 0.19321065 0.88138193 2039583
0.15010256 0.19298901 0.88037086 2039583
0.15151709 0.19276781 0.87936187 2039583
0.15295886 0.1925855 0.8785302 2039583
0.15442188 0.19243343 0.87783647 2039583
0.1558826 0.19228159 0.8771438 2039583
0.15734424 0.19213392 0.87647015 2039583
0.15882435 0.19201154 0.87591189 2039583
0.16030258 0.19188929 0.87535423 2039583
0.16177891 0.1917672 0.87479728 2039583
0.1632642 0.19165798 0.87429905 2039583
0.16476056 0.19156371 0.873869 2039583
0.16625544 0.19146954 0.87343943 2039583
0.16775392 0.19138123 0.87303656 2039583
0.16928962 0.19133665 0.87283319 2039583
0.17083193 0.19130027 0.87266725 2039583
0.1723737 0.19126396 0.87250161 2039583
0.17391483 0.19122761 0.87233585 2039583
0.17546768 0.1912047 0.87223125 2039583
0.17703065 0.1911931 0.87217838 2039583
0.17859341 0.1911815 0.87212545 2039583
0.18017416 0.19118917 0.87216043 2039583
0.18177609 0.19121902 0.87229657 2039583
0.18339443 0.19126543 0.87250835 2039583
0.18501356 0.1913119 0.8727203 2039583
0.18663347 0.19135836 0.87293226 2039583
0.1882581 0.19140886 0.87316263 2039583
0.18993326 0.19150947 0.87362158 2039583
0.19161817 0.19161817 0.87411743 2039583
0.19330502 0.19172701 0.87461394 2039583
0.19499846 0.19184059 0.87513208 2039583
0.1967378 0.19199713 0.87584615 2039583
0.19847998 0.19215392 0.8765614 2039583
0.20023872 0.19232415 0.87733793 2039583
0.20206055 0.19255182 0.87837654 2039583
0.20388845 0.19278169 0.87942511 2039583
0.20575239 0.19304182 0.88061178 2039583
0.20766315 0.19334155 0.88197911 2039583
0.20960407 0.1936646 0.88345277 2039583
0.21162331 0.19405459 0.88523179 2039583
0.21369034 0.19448222 0.88718259 2039583
0.21587366 0.19500855 0.88958353 2039583
0.21824099 0.19569211 0.8927018 2039583
0.22075425 0.19649555 0.89636689 2302755
0.22402272 0.19795461 0.90302283 5329233
0.12827849 0.20276278 0.9174059 2039583
0.1290836 0.20143621 0.91140378 2039583
0.13013192 0.20051774 0.90724814 2039583
0.1312848 0.19978121 0.9039157 2039583
0.1324777 0.19912292 0.90093726 2039583
0.13370028 0.19852465 0.89823037 2039583
0.13496423 0.19800143 0.895863 2039583
0.13626881 0.19754946 0.89381808 2039583
0.13761012 0.19716069 0.89205909 2039583
0.13896325 0.19679768 0.89041662 2039583
0.140314 0.19643961 0.88879651 2039583
0.14169365 0.19612963 0.88739407 2039583
0.14306901 0.19582072 0.88599634 2039583
0.14444983 0.195526 0.88466293 2039583
0.14584908 0.19526243 0.88347036 2039583
0.14724459 0.19499959 0.88228112 2039583
0.14864561 0.19474959 0.88115001 2039583
0.15006308 0.19452623 0.88013935 2039583
0.15150611 0.1943403 0.87929815 2039583
0.15294725 0.19415583 0.87846351 2039583
0.15441018 0.19400254 0.87776995 2039583
0.15587081 0.19384947 0.8770774 2039583
0.15732913 0.19369666 0.87638599 2039583
0.15879598 0.19355729 0.87575543 2039583
0.16027397 0.1934341 0.87519801 2039583
0.16175005 0.19331104 0.87464124 2039583
0.16322428 0.19318816 0.87408525 2039583
0.16471499 0.19308695 0.87362731 2039583
0.16622366 0.19300853 0.87327248 2039583
0.16774553 0.19294673 0.87299293 2039583
0.16926642 0.192885 0.87271357 2039583
0.17080405 0.19284329 0.87252486 2039583
0.17234555 0.19280666 0.87235916 2039583
0.17388645 0.19277005 0.87219352 2039583
0.17542678 0.19273345 0.87202793 2039583
0.17698179 0.19271351 0.87193769 2039583
0.17856131 0.19272035 0.87196869 2039583
0.18015654 0.1927439 0.8720752 2039583
0.18175215 0.19276743 0.87218165 2039583
0.18335198 0.19279501 0.87230641 2039583
0.18497071 0.1928418 0.87251812 2039583
0.18659022 0.19288863 0.87273002 2039583
0.18824209 0.19296783 0.87308836 2039583
0.18990396 0.1930559 0.87348682 2039583
0.19157122 0.19314794 0.87390327 2039583
0.1932576 0.1932576 0.87439942 2039583
0.19497167 0.19339295 0.8750118 2039583
0.19671074 0.19355072 0.87572569 2039583
0.19845261 0.19370872 0.87644053 2039583
0.20021182 0.19388102 0.87722009 2039583
0.20202278 0.19410032 0.87821233 2039583
0.20383786 0.19432013 0.8792069 2039583
0.20570317 0.19458409 0.88040113 2039583
0.20761335 0.1948861 0.88176763 2039583
0.2095513 0.1952094 0.88323039 2039583
0.21158284 0.19561432 0.88506252 2039583
0.21366255 0.19605739 0.8870672 2039583
0.215877 0.19661659 0.8895973 2039583
0.21821558 0.19727977 0.89259785 2039583
0.22076404 0.19812158 0.89640665 2171169
0.22418509 0.19972855 0.9036774 5263440
0.12841895 0.2046418 0.91841036 4473924
0.12916717 0.20321205 0.9119938 2039583
0.13019376 0.20225067 0.9076792 2039583
0.13131256 0.20145467 0.90410686 2039583
0.13247529 0.20074475 0.90092081 2039583
0.13369785 0.20014164 0.8982141 2039583
0.13498104 0.19964261 0.89597452 2039583
0.13630211 0.19921078 0.89403647 2039583
0.13762157 0.19878671 0.8921333 2039583
0.13897499 0.19842094 0.89049178 2039583
0.14032325 0.19805625 0.8888551 2039583
0.1416869 0.19772127 0.88735175 2039583
0.14306216 0.19740978 0.88595384 2039583
0.14443311 0.19709933 0.88456053 2039583
0.14582537 0.1968244 0.88332671 2039583
0.14722067 0.19655949 0.88213778 2039583
0.14862828 0.1963165 0.88104731 2039583
0.15006784 0.1961204 0.88016719 2039583
0.15151131 0.19593348 0.87932831 2039583
0.15295205 0.19574693 0.8784911 2039583
0.15439844 0.19557136 0.87770319 2039583
0.15585899 0.19541711 0.87701094 2039583
0.15731722 0.19526309 0.87631971 2039583
0.15877315 0.19510929 0.87562948 2039583
0.16024536 0.19497834 0.87504178 2039583
0.16172121 0.19485433 0.87448525 2039583
0.16319518 0.19473048 0.87392938 2039583
0.1646926 0.1946367 0.87350857 2039583
0.16621536 0.19457439 0.87322885 2039583
0.16773714 0.19451208 0.8729493 2039583
0.16925797 0.19444986 0.87266999 2039583
0.17077783 0.19438766 0.87239087 2039583
0.17231742 0.19434887 0.87221676 2039583
0.17385808 0.19431198 0.87205118 2039583
0.17539819 0.19427511 0.87188578 2039583
0.17695543 0.19425774 0.87180781 2039583
0.1785439 0.19427463 0.87188363 2039583
0.18013898 0.19429837 0.87199014 2039583
0.1817344 0.19432206 0.87209648 2039583
0.18333025 0.19434582 0.87220305 2039583
0.18492791 0.19437103 0.87231624 2039583
0.18656586 0.19443783 0.87261605 2039583
0.18822607 0.19452652 0.87301409 2039583
0.18988781 0.1946153 0.87341249 2039583
0.19155104 0.19470415 0.87381124 2039583
0.1932158 0.19479308 0.87421036 2039583
0.1949448 0.1949448 0.87489122 2039583
0.19668354 0.19510375 0.87560463 2039583
0.19842511 0.19526295 0.87631911 2039583
0.20020188 0.195454 0.87717652 2039583
0.20201275 0.19567509 0.8781687 2039583
0.20382786 0.19589682 0.8791638 2039583
0.20570363 0.19617295 0.8804031 2039583
0.20761184 0.19647557 0.88176119 2039583
0.20955716 0.19680844 0.88325506 2039583
0.21159253 0.19722021 0.88510305 2039583
0.21366566 0.19766074 0.88708013 2039583
0.21588047 0.19822481 0.8896116 2039583
0.21820255 0.19887835 0.89254457 2039583
0.22085066 0.19981727 0.89675838 2039583
0.22447768 0.20162177 0.9048568 7500402
0.12865704 0.20668131 0.92011315 4473924
0.12930726 0.20507966 0.91298282 2039583
0.13026461 0.2039993 0.9081732 2039583
0.13134034 0.20312884 0.90429813 2039583
0.13248506 0.20238516 0.90098733 2039583
0.13374695 0.20183632 0.89854395 2039583
0.13502148 0.20131944 0.89624292 2039583
0.13633539 0.20087285 0.8942548 2039583
0.13765101 0.20043918 0.89232415 2039583
0.1389865 0.20004414 0.89056551 2039583
0.14033507 0.19967675 0.88892996 2039583
0.14168015 0.19931275 0.88730943 2039583
0.14305533 0.19899875 0.88591158 2039583
0.1444262 0.19868577 0.88451821 2039583
0.14580165 0.19838585 0.883183 2039583
0.14722805 0.19816099 0.882182 2039583
0.14865121 0.19793664 0.88118321 2039583
0.15007296 0.19771518 0.88019729 2039583
0.15151651 0.19752677 0.87935853 2039583
0.15295729 0.19733869 0.8785212 2039583
0.15439531 0.19715095 0.87768543 2039583
0.15584715 0.19698447 0.8769443 2039583
0.1573053 0.19682924 0.87625325 2039583
0.15876114 0.19667426 0.87556326 2039583
0.16021676 0.19652203 0.87488562 2039583
0.16169734 0.19640312 0.87435621 2039583
0.16320081 0.19631402 0.8739596 2039583
0.16470292 0.196225 0.87356329 2039583
0.16620703 0.19614005 0.8731851 2039583
0.16772878 0.1960773 0.87290573 2039583
0.1692495 0.19601455 0.87262636 2039583
0.17076929 0.19595186 0.8723473 2039583
0.1722893 0.19589056 0.87207443 2039583
0.17382972 0.19585338 0.8719089 2039583
0.17538795 0.19583677 0.87183493 2039583
0.17696148 0.19583738 0.87183762 2039583
0.17853503 0.19583799 0.87184036 2039583
0.18012135 0.19585247 0.87190485 2039583
0.18171664 0.19587637 0.87201124 2039583
0.18331233 0.19590031 0.87211776 2039583
0.18491679 0.19593312 0.87226385 2039583
0.18655547 0.19600132 0.87256747 2039583
0.18820995 0.19608486 0.87293935 2039583
0.18987153 0.19617432 0.87333769 2039583
0.19153459 0.19626385 0.8737362 2039583
0.19322412 0.1963788 0.87424797 2039583
0.19494249 0.19652098 0.87488091 2039583
0.19666336 0.19666336 0.87551481 2039583
0.19839761 0.19681674 0.87619764 2039583
0.20019197 0.19702688 0.87713313 2039583
0.20200293 0.19724992 0.87812603 2039583
0.20381798 0.19747345 0.87912118 2039583
0.20570695 0.19776461 0.88041735 2039583
0.20761526 0.19806974 0.88177574 2039583
0.20956679 0.19841114 0.8832956 2039583
0.21160176 0.19882581 0.88514167 2039583
0.21366875 0.19926412 0.88709295 2039583
0.21590038 0.19984831 0.88969368 2039583
0.21828799 0.20056719 0.89289403 2039583
0.22093731 0.20151426 0.89711022 2039583
0.12944789 0.20695172 0.91397578 2039583
0.13033547 0.20574969 0.90866721 2039583
0.13136813 0.20480374 0.90448946 2039583
0.13257073 0.20414266 0.9015699 2039583
0.1338066 0.20354822 0.89894468 2039583
0.13508148 0.20302665 0.89664125 2039583
0.13636871 0.20253576 0.89447331 2039583
0.13768457 0.20209841 0.89254177 2039583
0.13899799 0.20166761 0.89063919 2039583
0.14034666 0.20129721 0.88900334 2039583
0.14169037 0.20092815 0.88737345 2039583
0.14304851 0.20058759 0.88586938 2039583
0.14443469 0.20029342 0.88457024 2039583
0.14583555 0.2000258 0.88338834 2039583
0.14725083 0.19978356 0.88231856 2039583
0.14867416 0.19955729 0.88131922 2039583
0.15009433 0.19933161 0.88032258 2039583
0.15152167 0.1991201 0.87938845 2039583
0.15296252 0.19893053 0.87855124 2039583
0.1544006 0.19874129 0.87771547 2039583
0.15583597 0.19855241 0.87688136 2039583
0.15729335 0.19839513 0.87618673 2039583
0.1587491 0.19823892 0.87549686 2039583
0.16021872 0.19810294 0.87489629 2039583
0.16170801 0.19799371 0.87441391 2039583
0.16321158 0.1979039 0.87401724 2039583
0.16471379 0.19781417 0.87362093 2039583
0.16621462 0.19772449 0.87322491 2039583
0.16772036 0.19764231 0.87286198 2039583
0.16924106 0.1975791 0.87258279 2039583
0.17076075 0.19751589 0.87230366 2039583
0.17227949 0.19745275 0.87202483 2039583
0.17382039 0.19741592 0.87186211 2039583
0.17539395 0.1974165 0.87186474 2039583
0.17696755 0.19741713 0.87186748 2039583
0.17854117 0.19741777 0.87187028 2039583
0.18011476 0.19741836 0.8718729 2039583
0.18169889 0.19743039 0.87192607 2039583
0.1832944 0.19745448 0.87203246 2039583
0.18492991 0.19752087 0.87232566 2039583
0.18656866 0.19758959 0.87262917 2039583
0.18820859 0.1976584 0.87293303 2039583
0.18985525 0.19773306 0.87326276 2039583
0.19151817 0.1978233 0.87366128 2039583
0.1932334 0.19796564 0.87428993 2039583
0.19495189 0.198109 0.87492305 2039583
0.1966729 0.1982526 0.87555724 2039583
0.1984054 0.1984054 0.87623209 2039583
0.20020032 0.1986177 0.87716967 2039583
0.2019991 0.19883049 0.8781094 2039583
0.20380807 0.1990499 0.87907845 2039583
0.20571034 0.19935635 0.88043183 2039583
0.20761865 0.19966392 0.88179016 2039583
0.20957619 0.20001377 0.88333523 2039583
0.21162197 0.20044194 0.88522619 2039583
0.21371397 0.20090714 0.8872807 2039583
0.21599112 0.20153819 0.89006764 2039583
0.21837349 0.20225736 0.89324379 2039583
0.2211336 0.20331332 0.89790726 2039583
0.12967147 0.20896102 0.9155544 2039583
0.13043021 0.20753989 0.90932769 2039583
0.13149087 0.2066285 0.90533453 2039583
0.1326656 0.20591655 0.90221512 2039583
0.13387768 0.2052791 0.89942217 2039583
0.1351416 0.20473547 0.89704031 2039583
0.13641039 0.204212 0.89474666 2039583
0.13771814 0.20375842 0.89275938 2039583
0.13902856 0.20331924 0.89083511 2039583
0.14035822 0.2029179 0.88907665 2039583
0.14170204 0.20254587 0.88744658 2039583
0.14307369 0.20222148 0.88602531 2039583
0.14447695 0.20194845 0.88482904 2039583
0.14587815 0.20167853 0.88364643 2039583
0.14727561 0.20140935 0.88246703 2039583
0.14869726 0.20117864 0.88145614 2039583
0.15011747 0.20095089 0.8804583 2039583
0.1515346 0.20072384 0.87946349 2039583
0.15296772 0.20052245 0.87858111 2039583
0.15440588 0.20033173 0.87774545 2039583
0.15584129 0.20014136 0.87691134 2039583
0.15728141 0.1999608 0.87612021 2039583
0.1587642 0.19983752 0.87558013 2039583
0.16024871 0.19971885 0.87506014 2039583
0.16173147 0.19960031 0.87454075 2039583
0.16322231 0.19949393 0.8740747 2039583
0.16472462 0.19940348 0.87367839 2039583
0.16622557 0.19931312 0.87328249 2039583
0.16772513 0.1992228 0.87288678 2039583
0.16923258 0.19914345 0.8725391 2039583
0.17075223 0.19907978 0.87226009 2039583
0.17229357 0.19904235 0.87209612 2039583
0.17384671 0.19901907 0.87199414 2039583
0.17539997 0.19899638 0.87189466 2039583
0.17697361 0.19899701 0.8718974 2039583
0.17854725 0.1989976 0.87190002 2039583
0.18012092 0.19899821 0.8719027 2039583
0.1816946 0.19899885 0.87190551 2039583
0.18330522 0.19903958 0.87208396 2039583
0.18494299 0.19910884 0.87238741 2039583
0.18658189 0.19917813 0.87269104 2039583
0.18822193 0.19924749 0.8729949 2039583
0.1898631 0.19931687 0.87329888 2039583
0.19153331 0.19941534 0.87373036 2039583
0.19324285 0.19955282 0.87433267 2039583
0.19496146 0.19969736 0.87496603 2039583
0.19668257 0.19984213 0.87560028 2039583
0.19843943 0.20002063 0.87638235 2039583
0.20023468 0.20023468 0.87732023 2039583
0.20203376 0.20044918 0.87826008 2039583
0.20385751 0.20068464 0.87929171 2039583
0.20575882 0.20099221 0.88063931 2039583
0.20766591 0.20130068 0.88199085 2039583
0.20964541 0.2016741 0.883627 2039583
0.21169975 0.20211335 0.88555157 2039583
0.21380353 0.20259286 0.88765252 2039583
0.21608204 0.20322958 0.89044225 2039583
0.21849824 0.20398544 0.89375407 2039583
0.22137608 0.20515805 0.89889181 2039583
0.12995219 0.21106885 0.9175365 4473924
0.13059132 0.20943891 0.91045094 2039583
0.13163488 0.20849001 0.90632606 2039583
0.13276047 0.20769274 0.90286022 2039583
0.13397327 0.20704959 0.90006441 2039583
0.13520202 0.2064462 0.89744139 2039583
0.13647096 0.20591773 0.89514405 2039583
0.13775174 0.20541926 0.89297718 2039583
0.13906242 0.20497639 0.89105201 2039583
0.14038001 0.20455372 0.88921458 2039583
0.141761 0.20423195 0.88781583 2039583
0.14313768 0.20391122 0.88642156 2039583
0.14451911 0.20360427 0.88508719 2039583
0.1459208 0.20333226 0.88390476 2039583
0.1473186 0.20306079 0.88272464 2039583
0.14872049 0.20280066 0.88159388 2039583
0.15014084 0.20257097 0.88059539 2039583
0.151558 0.20234182 0.87959927 2039583
0.15297294 0.20211449 0.87861103 2039583
0.15441112 0.20192225 0.87777531 2039583
0.15585501 0.20174126 0.87698859 2039583
0.15732014 0.20159113 0.87633592 2039583
0.15879397 0.20145504 0.87574434 2039583
0.16027872 0.20133534 0.87522399 2039583
0.16176175 0.20121583 0.87470448 2039583
0.163243 0.20109645 0.8741855 2039583
0.16473545 0.20099302 0.87373585 2039583
0.16623649 0.20090191 0.87333983 2039583
0.16773617 0.20081091 0.87294424 2039583
0.16923447 0.20071995 0.87254882 2039583
0.17076869 0.20067289 0.87234426 2039583
0.17232244 0.20064943 0.87224221 2039583
0.17387584 0.20062596 0.87214023 2039583
0.17542884 0.20060249 0.87203819 2039583
0.17698152 0.20057905 0.87193632 2039583
0.17855339 0.20057759 0.87192994 2039583
0.1801271 0.2005782 0.87193263 2039583
0.18172307 0.2006034 0.87204212 2039583
0.18334055 0.20065168 0.87225205 2039583
0.18495883 0.20070001 0.87246215 2039583
0.18659516 0.20076694 0.87275308 2039583
0.18823534 0.20083687 0.87305707 2039583
0.18988106 0.20091149 0.87338144 2039583
0.19157815 0.20103879 0.87393486 2039583
0.19327737 0.20116624 0.87448889 2039583
0.19497876 0.20129387 0.87504369 2039583
0.19669224 0.20143181 0.87564337 2039583
0.19847342 0.20163634 0.8765325 2039583
0.20026898 0.20185214 0.87747055 2039583
0.20206839 0.20206839 0.87841064 2039583
0.20391452 0.20232764 0.87953758 2039583
0.20581637 0.20263775 0.88088566 2039583
0.20772402 0.20294875 0.88223761 2039583
0.20972224 0.20334285 0.88395083 2039583
0.21177793 0.20378631 0.88587856 2039583
0.21389316 0.20427999 0.88802463 2039583
0.21621141 0.20495877 0.89097536 2039583
0.21873614 0.20582183 0.89472717 2039583
0.22170515 0.20708723 0.90022802 2039583
0.13081367 0.21144097 0.91200113 2039583
0.13179162 0.21037546 0.90740532 2039583
0.13290197 0.20954481 0.90382254 2039583
0.13406885 0.20882238 0.90070653 2039583
0.13527472 0.20817727 0.89792395 2039583
0.13653184 0.20762536 0.8955434 2039583
0.1377947 0.20709497 0.89325571 2039583
0.13912125 0.20667146 0.89142901 2039583
0.14046837 0.20628783 0.88977432 2039583
0.14182465 0.20592618 0.88821441 2039583
0.14320174 0.20560248 0.88681823 2039583
0.14457461 0.20527996 0.88542712 2039583
0.14596322 0.2049866 0.88416177 2039583
0.14736156 0.20471309 0.88298202 2039583
0.14875606 0.20444013 0.8818047 2039583
0.15016428 0.20419164 0.88073289 2039583
0.15158163 0.20396063 0.87973642 2039583
0.15299577 0.20373011 0.87874216 2039583
0.15443686 0.20353985 0.87792152 2039583
0.15590459 0.20338823 0.87726754 2039583
0.15737014 0.20323682 0.87661445 2039583
0.15883352 0.20308565 0.87596244 2039583
0.16030887 0.20295261 0.87538862 2039583
0.16179207 0.20283201 0.87486845 2039583
0.16327354 0.2027116 0.87434906 2039583
0.1647533 0.20259139 0.87383056 2039583
0.16624741 0.20249093 0.87339723 2039583
0.16774717 0.20239916 0.87300146 2039583
0.16927616 0.20234406 0.87276375 2039583
0.17080972 0.20229538 0.87255377 2039583
0.17235126 0.20225696 0.87238806 2039583
0.17390493 0.20223333 0.87228614 2039583
0.17545821 0.20220968 0.87218416 2039583
0.17701113 0.20218605 0.87208223 2039583
0.1785637 0.20216243 0.87198037 2039583
0.18014719 0.20217392 0.8720299 2039583
0.18176427 0.20222259 0.87223983 2039583
0.18338212 0.20227127 0.87244982 2039583
0.18500079 0.20232001 0.87266004 2039583
0.18662019 0.20236874 0.87287021 2039583
0.18824872 0.20242646 0.87311918 2039583
0.18992549 0.20253465 0.87358582 2039583
0.191623 0.202663 0.87413949 2039583
0.19332263 0.2027915 0.87469369 2039583
0.19502445 0.20292017 0.87524867 2039583
0.19674687 0.20306806 0.87588656 2039583
0.19852722 0.20327289 0.87677008 2039583
0.20031114 0.20347811 0.87765527 2039583
0.20210303 0.20368816 0.8785612 2039583
0.20397149 0.20397149 0.87978333 2039583
0.20587389 0.20428413 0.88113183 2039583
0.20778213 0.20459774 0.8824845 2039583
0.2097995 0.20501319 0.88427645 2039583
0.21187571 0.20547946 0.88628757 2039583
0.21405075 0.20603387 0.88867891 2039583
0.21640691 0.20675308 0.89178103 2039583
0.21897487 0.20766251 0.89570367 2039583
0.22256355 0.20951952 0.90371346 6842472
0.13117552 0.21367584 0.91452384 2039583
0.13201357 0.21236967 0.90893346 2039583
0.13304752 0.2114068 0.9048124 2039583
0.13416453 0.21059765 0.90134931 2039583
0.13537101 0.20994668 0.89856315 2039583
0.13659279 0.20933451 0.89594311 2039583
0.13789749 0.20886227 0.89392197 2039583
0.13921034 0.20841317 0.89199984 2039583
0.14055815 0.20802608 0.89034307 2039583
0.14190097 0.20764041 0.88869244 2039583
0.14326607 0.2072956 0.88721663 2039583
0.14463921 0.20696992 0.88582277 2039583
0.14600828 0.20664561 0.8844347 2039583
0.14740434 0.20636608 0.88323838 2039583
0.14879932 0.20609103 0.88206118 2039583
0.1501905 0.20581661 0.88088667 2039583
0.15160701 0.20558228 0.87988371 2039583
0.15305474 0.2053947 0.87908089 2039583
0.15449983 0.20520747 0.87827957 2039583
0.15595418 0.20503621 0.87754655 2039583
0.15742019 0.20488356 0.87689322 2039583
0.15888399 0.20473112 0.87624079 2039583
0.16034561 0.20457889 0.87558925 2039583
0.16182251 0.20444892 0.87503302 2039583
0.16330422 0.20432751 0.87451339 2039583
0.16478419 0.20420624 0.87399435 2039583
0.1662624 0.20408513 0.87347597 2039583
0.1677929 0.20402986 0.87323946 2039583
0.16932768 0.20398077 0.87302935 2039583
0.17086168 0.20393169 0.87281924 2039583
0.17239496 0.20388262 0.87260926 2039583
0.17393398 0.20384119 0.87243193 2039583
0.17548753 0.20381737 0.87232995 2039583
0.17704071 0.20379353 0.87222797 2039583
0.17860176 0.20377909 0.87216616 2039583
0.18019904 0.20380589 0.8722809 2039583
0.18180542 0.20384245 0.8724373 2039583
0.18342365 0.20389153 0.8726474 2039583
0.18504269 0.20394066 0.87285769 2039583
0.18666251 0.20398983 0.87306809 2039583
0.18829831 0.2040555 0.87334919 2039583
0.18997718 0.20416635 0.87382364 2039583
0.19166781 0.2042879 0.87434387 2039583
0.19336787 0.20441747 0.87489837 2039583
0.19507012 0.20454721 0.87545365 2039583
0.19682455 0.20472915 0.87623239 2039583
0.19860566 0.20493573 0.8771165 2039583
0.2003904 0.20514274 0.87800252 2039583
0.20217873 0.20535016 0.87889028 2039583
0.2040747 0.20566283 0.88022846 2039583
0.20597667 0.20597667 0.88157171 2039583
0.20788455 0.20629156 0.88291943 2039583
0.20995067 0.2067575 0.88491362 2039583
0.2120302 0.20722952 0.88693386 2039583
0.21424447 0.20782515 0.88948315 2039583
0.21660228 0.20855016 0.89258611 2039583
0.21943368 0.20971707 0.89758044 2039583
0.13172781 0.21623245 0.9183743 4473924
0.1322398 0.21437632 0.91049105 2039583
0.13320714 0.21329488 0.90589797 2039583
0.13430856 0.21245173 0.90231699 2039583
0.1354723 0.21172616 0.89923537 2039583
0.13672702 0.21115831 0.89682359 2039583
0.13801867 0.21066009 0.89470756 2039583
0.13932395 0.21019393 0.89272773 2039583
0.14064808 0.20976657 0.89091265 2039583
0.14199159 0.20937741 0.88925987 2039583
0.14333057 0.20899038 0.8876161 2039583
0.14470421 0.20866187 0.88622087 2039583
0.14607354 0.20833439 0.88482994 2039583
0.14744715 0.20802003 0.88349485 2039583
0.14884247 0.20774269 0.88231695 2039583
0.15025063 0.20748895 0.8812393 2039583
0.15167718 0.20726566 0.88029093 2039583
0.15312557 0.20707653 0.87948769 2039583
0.15457125 0.20688768 0.87868553 2039583
0.15601432 0.20669918 0.87788498 2039583
0.15747023 0.2065313 0.87717199 2039583
0.15893447 0.2063776 0.87651914 2039583
0.16039655 0.20622413 0.87586737 2039583
0.16185643 0.20607087 0.87521642 2039583
0.16333494 0.20594405 0.87467784 2039583
0.16482097 0.20582905 0.87418944 2039583
0.16633637 0.20575257 0.87386459 2039583
0.16785067 0.20567617 0.8735401 2039583
0.16937923 0.2056185 0.87329519 2039583
0.1709137 0.20556901 0.87308496 2039583
0.17244741 0.20551951 0.87287474 2039583
0.17398039 0.20547006 0.87266469 2039583
0.17551686 0.20542556 0.87247574 2039583
0.17707305 0.20540473 0.87238723 2039583
0.17867053 0.20543174 0.87250197 2039583
0.18026845 0.2054588 0.87261689 2039583
0.18186678 0.20548585 0.87273175 2039583
0.18346557 0.20551293 0.87284678 2039583
0.18508458 0.20556203 0.87305528 2039583
0.18670477 0.20561157 0.87326574 2039583
0.18837745 0.20571764 0.87371624 2039583
0.19005707 0.20582944 0.87419105 2039583
0.19173853 0.20594139 0.87466651 2039583
0.19342181 0.20605344 0.8751424 2039583
0.19512397 0.20618363 0.87569535 2039583
0.19690228 0.20639154 0.87657839 2039583
0.19868419 0.20659989 0.87746328 2039583
0.20046972 0.20680867 0.87835002 2039583
0.20229129 0.20705108 0.87937957 2039583
0.20418873 0.20736676 0.88072032 2039583
0.20609206 0.2076835 0.88206553 2039583
0.20803159 0.20803159 0.88354397 2039583
0.21010357 0.20850584 0.88555813 2039583
0.21218479 0.20898199 0.88758045 2039583
0.21445251 0.20963335 0.89034688 2039583
0.21691062 0.21045974 0.8938567 2039583
0.21994279 0.21182682 0.89966291 2039583
0.13260548 0.21661641 0.91300881 2039583
0.133431 0.2152905 0.90742034 2039583
0.13446878 0.21433508 0.90339333 2039583
0.1356436 0.21361835 0.90037245 2039583
0.13688965 0.21302946 0.89789033 2039583
0.13813987 0.21246074 0.89549327 2039583
0.13944621 0.21199049 0.89351124 2039583
0.14074656 0.21152198 0.89153653 2039583
0.1420823 0.21111666 0.88982809 2039583
0.1434215 0.21072546 0.88817924 2039583
0.14476931 0.21035542 0.88661957 2039583
0.14613914 0.2100251 0.88522738 2039583
0.14750467 0.20969583 0.88383955 2039583
0.14891714 0.20943962 0.88275963 2039583
0.1503443 0.20920925 0.88178867 2039583
0.15176828 0.20897937 0.88081974 2039583
0.15319633 0.20875977 0.87989414 2039583
0.1546427 0.20856939 0.87909174 2039583
0.1560864 0.20837931 0.87829059 2039583
0.15752746 0.20818955 0.87749076 2039583
0.15898496 0.2080251 0.87679762 2039583
0.16044746 0.20787036 0.87614542 2039583
0.16190778 0.20771584 0.87549412 2039583
0.16337918 0.20757838 0.87491477 2039583
0.16489515 0.20749964 0.87458289 2039583
0.16641124 0.20742252 0.87425786 2039583
0.16792616 0.20734544 0.87393296 2039583
0.16943999 0.20726845 0.87360841 2039583
0.17096579 0.2072074 0.8733511 2039583
0.17249995 0.20715749 0.87314075 2039583
0.17403339 0.2071076 0.87293053 2039583
0.17556608 0.20705774 0.87272036 2039583
0.17714261 0.20706002 0.87272996 2039583
0.17873943 0.20708576 0.87283844 2039583
0.18033795 0.20711301 0.8729533 2039583
0.1819369 0.2071403 0.87306827 2039583
0.18353628 0.20716755 0.87318319 2039583
0.18513609 0.20719486 0.87329829 2039583
0.18677813 0.20726855 0.87360889 2039583
0.1884567 0.20738122 0.87408376 2039583
0.1901371 0.20749401 0.87455916 2039583
0.19181934 0.20760693 0.87503511 2039583
0.19350341 0.20771998 0.87551159 2039583
0.19523706 0.207884 0.87620288 2039583
0.19700433 0.20808089 0.87703276 2039583
0.19877496 0.20827815 0.87786418 2039583
0.2005491 0.20847595 0.87869787 2039583
0.20240425 0.20875418 0.87987059 2039583
0.20430301 0.20907272 0.88121325 2039583
0.20620756 0.20939223 0.8825599 2039583
0.20818293 0.2097782 0.88418674 2039583
0.21027775 0.21027775 0.88629222 2039583
0.21238577 0.21078287 0.88842124 2039583
0.21477848 0.21156082 0.89170021 2039583
0.21724439 0.2123988 0.89523214 2039583
0.22086777 0.21434769 0.9034465 6842472
0.1331642 0.2191833 0.91685563 4473924
0.13367957 0.21733181 0.90911078 2039583
0.13472076 0.21636969 0.90508616 2039583
0.13586505 0.21559425 0.90184242 2039583
0.1370528 0.21490529 0.89896047 2039583
0.13830279 0.21432889 0.89654934 2039583
0.13956846 0.21378984 0.8942945 2039583
0.1408699 0.21331729 0.89231777 2039583
0.14217317 0.21285814 0.89039713 2039583
0.14351305 0.21246345 0.88874614 2039583
0.14484796 0.21207021 0.88710123 2039583
0.14621861 0.21173735 0.88570881 2039583
0.14762144 0.21145773 0.88453919 2039583
0.14902055 0.21117887 0.88337266 2039583
0.15043806 0.21093167 0.88233864 2039583
0.15186286 0.21069978 0.88136864 2039583
0.15328451 0.21046837 0.8804006 2039583
0.15471412 0.21025254 0.87949777 2039583
0.15615846 0.21006086 0.87869602 2039583
0.15760018 0.20986958 0.87789583 2039583
0.15903923 0.20967858 0.87709689 2039583
0.16049841 0.20951763 0.8764236 2039583
0.16198167 0.20939095 0.87589371 2039583
0.16347815 0.20928362 0.87544477 2039583
0.16497312 0.20917645 0.87499642 2039583
0.1664861 0.20909391 0.87465119 2039583
0.1680017 0.2090162 0.87432611 2039583
0.16951619 0.20893855 0.87400132 2039583
0.17102954 0.20886096 0.87367672 2039583
0.17255256 0.20879647 0.87340695 2039583
0.17408644 0.20874618 0.8731966 2039583
0.17566152 0.20874575 0.87319481 2039583
0.17724024 0.20874961 0.87321097 2039583
0.17881902 0.20875348 0.87322712 2039583
0.18040754 0.20876855 0.87329018 2039583
0.18200712 0.20879605 0.87340522 2039583
0.18360713 0.20882355 0.87352026 2039583
0.18522371 0.20886929 0.87371159 2039583
0.18688419 0.20896333 0.87410498 2039583
0.18854617 0.20905747 0.87449872 2039583
0.19021733 0.20916013 0.87492818 2039583
0.1919003 0.20927399 0.87540448 2039583
0.19359444 0.20939808 0.87592351 2039583
0.19535959 0.20959632 0.87675279 2039583
0.19712807 0.20979494 0.87758362 2039583
0.19889985 0.20999387 0.87841576 2039583
0.20067784 0.21019615 0.87926191 2039583
0.20257123 0.2105152 0.88059652 2039583
0.2044704 0.21083523 0.88193524 2039583
0.20637543 0.21115632 0.88327837 2039583
0.20841648 0.2116106 0.88517863 2039583
0.21051742 0.21211831 0.8873024 2039583
0.21265772 0.21265772 0.88955879 2039583
0.21510796 0.21349667 0.89306813 2039583
0.2179087 0.21466842 0.89796966 2039583
0.13415007 0.21974275 0.91231048 2039583
0.13503131 0.21850522 0.90717262 2039583
0.13608658 0.21757556 0.90331292 2039583
0.13725655 0.2168491 0.90029687 2039583
0.13846742 0.2162035 0.89761651 2039583
0.13971172 0.21562445 0.89521247 2039583
0.14099322 0.21511537 0.89309889 2039583
0.14228977 0.2146405 0.89112735 2039583
0.14360471 0.21420369 0.88931382 2039583
0.14497437 0.21385722 0.88787538 2039583
0.14634429 0.21351872 0.88647008 2039583
0.14774153 0.21322696 0.88525873 2039583
0.14914164 0.21294555 0.88409042 2039583
0.15053804 0.21266486 0.88292503 2039583
0.15195751 0.21242228 0.88191795 2039583
0.15337998 0.21218887 0.8809489 2039583
0.15479931 0.21195598 0.87998199 2039583
0.15623055 0.21174395 0.87910169 2039583
0.15767287 0.21155103 0.87830073 2039583
0.15911254 0.21135844 0.87750119 2039583
0.1605837 0.21121109 0.87688941 2039583
0.16207992 0.21109921 0.87642491 2039583
0.16357724 0.21099094 0.87597543 2039583
0.16507307 0.21088281 0.87552649 2039583
0.16656734 0.21077479 0.87507802 2039583
0.16807728 0.21068843 0.87471944 2039583
0.16959241 0.21061011 0.8743943 2039583
0.17110641 0.21053186 0.87406945 2039583
0.17261931 0.21045369 0.8737449 2039583
0.17417888 0.21043332 0.87366033 2039583
0.17575842 0.21043721 0.87367648 2039583
0.17733802 0.21044111 0.87369269 2039583
0.17891768 0.21044502 0.8737089 2039583
0.18049736 0.21044889 0.873725 2039583
0.18207739 0.21045309 0.8737424 2039583
0.18367802 0.21048081 0.8738575 2039583
0.18533787 0.21057537 0.87425011 2039583
0.18699943 0.21067025 0.87464398 2039583
0.18866248 0.2107652 0.87503821 2039583
0.19032703 0.21086024 0.87543279 2039583
0.19199307 0.21095535 0.87582767 2039583
0.19371583 0.21111073 0.87647271 2039583
0.19548212 0.21131064 0.87730271 2039583
0.19725178 0.21151094 0.87813431 2039583
0.19902481 0.21171165 0.87896758 2039583
0.2008498 0.21196403 0.88001537 2039583
0.20274512 0.21228607 0.88135242 2039583
0.2046463 0.21260919 0.88269395 2039583
0.20655991 0.21294014 0.88406795 2039583
0.20865373 0.21345037 0.8861863 2039583
0.21075743 0.21396288 0.88831407 2039583
0.21301116 0.21461879 0.89103723 2039583
0.21559766 0.21559766 0.89510125 2039583
0.21915077 0.2175214 0.90308803 6842472
0.13499382 0.22278123 0.91804862 6842472
0.13543555 0.22080098 0.90988833 2039583
0.13638709 0.21968938 0.90530759 2039583
0.13747989 0.21882895 0.90176183 2039583
0.13864328 0.21809967 0.89875662 2039583
0.13987778 0.21749783 0.89627653 2039583
0.14111675 0.21691661 0.89388138 2039583
0.14243183 0.21646418 0.89201701 2039583
0.14376514 0.21604928 0.89030731 2039583
0.14512527 0.2156834 0.88879955 2039583
0.14649639 0.21534169 0.88739139 2039583
0.14786316 0.21500103 0.88598758 2039583
0.14926288 0.21471505 0.88480908 2039583
0.15066026 0.21443181 0.8836419 2039583
0.15205398 0.21414933 0.88247782 2039583
0.15347552 0.21391147 0.88149768 2039583
0.15489563 0.21367653 0.88052952 2039583
0.15631263 0.21344212 0.87956351 2039583
0.15775365 0.21324489 0.87875074 2039583
0.15923232 0.21310195 0.87816179 2039583
0.16070902 0.21295926 0.87757373 2039583
0.16218375 0.21281673 0.87698638 2039583
0.1636765 0.21270038 0.87650692 2039583
0.16517314 0.21259128 0.87605733 2039583
0.16666827 0.2124823 0.87560827 2039583
0.16816185 0.21237344 0.87515962 2039583
0.16966869 0.21228316 0.87478763 2039583
0.17118338 0.21220428 0.87446254 2039583
0.1727401 0.21217848 0.87435627 2039583
0.17429982 0.2121568 0.87426692 2039583
0.17585924 0.21213514 0.87417763 2039583
0.17743593 0.21213451 0.87417507 2039583
0.17901646 0.21213844 0.87419128 2039583
0.18059704 0.21214238 0.8742075 2039583
0.18217768 0.2121463 0.87422365 2039583
0.18380527 0.21220437 0.87446296 2039583
0.18545207 0.21228343 0.87478876 2039583
0.18711467 0.2123791 0.87518299 2039583
0.1887788 0.2124749 0.87557775 2039583
0.19044441 0.21257073 0.87597269 2039583
0.19213116 0.2126884 0.87645757 2039583
0.19388326 0.2128759 0.87723023 2039583
0.19563842 0.2130637 0.87800413 2039583
0.19739671 0.21325186 0.87877953 2039583
0.1991581 0.21344036 0.8795563 2039583
0.2010285 0.21374176 0.88079834 2039583
0.20292456 0.21406552 0.88213247 2039583
0.2048264 0.21439028 0.88347077 2039583
0.20680891 0.2147938 0.88513362 2039583
0.20893511 0.21533926 0.88738137 2039583
0.21107256 0.21588792 0.8896423 2039583
0.21351461 0.21673748 0.89314324 2039583
0.21611246 0.21773128 0.89723855 2039583
0.13602059 0.2234035 0.91381872 4473924
0.13671422 0.22185363 0.90747905 2039583
0.1377373 0.22086869 0.90345025 2039583
0.13886845 0.22007807 0.90021622 2039583
0.14004609 0.21937855 0.8973549 2039583
0.14133075 0.21886076 0.89523691 2039583
0.14262119 0.21836352 0.89320302 2039583
0.14395584 0.21794432 0.89148831 2039583
0.14528547 0.21752687 0.8897807 2039583
0.14664882 0.21716848 0.88831472 2039583
0.14801675 0.21682453 0.88690788 2039583
0.14938425 0.21648733 0.88552856 2039583
0.15078266 0.2162016 0.88435978 2039583
0.15217736 0.21591657 0.88319391 2039583
0.15357117 0.21563621 0.88204712 2039583
0.15499207 0.21539924 0.88107777 2039583
0.15643382 0.21519578 0.88024551 2039583
0.15788814 0.2150135 0.87949997 2039583
0.15935674 0.21485411 0.87884796 2039583
0.16083454 0.21471015 0.87825906 2039583
0.16231033 0.21456635 0.87767088 2039583
0.16378415 0.21442272 0.87708336 2039583
0.16527338 0.21430185 0.876589 2039583
0.16676936 0.21419191 0.87613928 2039583
0.16826381 0.21408212 0.87569016 2039583
0.1697567 0.21397239 0.87524134 2039583
0.17130491 0.2139338 0.87508345 2039583
0.17286611 0.21391195 0.8749941 2039583
0.17442696 0.21389008 0.87490463 2039583
0.1759875 0.21386822 0.87481523 2039583
0.17754771 0.21384634 0.87472576 2039583
0.17911534 0.21383372 0.87467414 2039583
0.1806968 0.21383768 0.87469035 2039583
0.18231352 0.21388295 0.87487549 2039583
0.18395662 0.21395814 0.87518305 2039583
0.18560095 0.21403342 0.87549102 2039583
0.18724641 0.21410877 0.87579918 2039583
0.18889526 0.21418667 0.87611783 2039583
0.19056194 0.21428333 0.87651324 2039583
0.1922992 0.21445714 0.87722415 2039583
0.19405302 0.2146464 0.87799835 2039583
0.19580995 0.21483602 0.87877393 2039583
0.19756998 0.21502596 0.87955093 2039583
0.19937563 0.21526213 0.88051695 2039583
0.20126858 0.21558809 0.88185024 2039583
0.20316723 0.21591498 0.88318735 2039583
0.20507143 0.21624264 0.88452768 2039583
0.20714507 0.21674252 0.88657236 2039583
0.20927618 0.21729442 0.88882995 2039583
0.21144 0.21787164 0.89119095 2039583
0.21409322 0.21894063 0.8955636 2039583
0.2183819 0.22165354 0.90666062 6842472
0.13719302 0.22427364 0.91065723 2039583
0.13805576 0.22301315 0.9055391 2039583
0.13913234 0.22212356 0.90192693 2039583
0.14034036 0.22146195 0.89924049 2039583
0.14157228 0.22085276 0.8967669 2039583
0.1428525 0.22033183 0.89465165 2039583
0.14414723 0.21984465 0.89267349 2039583
0.14547808 0.21942274 0.89096034 2039583
0.14680399 0.21900266 0.88925463 2039583
0.14817068 0.21865186 0.8878302 2039583
0.14953546 0.21830578 0.88642496 2039583
0.15090522 0.21797422 0.88507861 2039583
0.15230091 0.21768664 0.88391089 2039583
0.15369593 0.21740408 0.88276362 2039583
0.15512881 0.21718033 0.88185507 2039583
0.15658689 0.21699603 0.88110673 2039583
0.15804251 0.21681207 0.88035977 2039583
0.15949562 0.21662839 0.87961394 2039583
0.16096015 0.21646364 0.87894499 2039583
0.16243705 0.21631862 0.8783561 2039583
0.16391197 0.21617375 0.87776786 2039583
0.16538492 0.21602909 0.87718052 2039583
0.16687056 0.21590362 0.87667102 2039583
0.16837151 0.21580011 0.87625068 2039583
0.1699127 0.21574961 0.87604564 2039583
0.17145315 0.21569912 0.87584066 2039583
0.17299287 0.21564864 0.87563568 2039583
0.17455415 0.21562573 0.87554264 2039583
0.17611584 0.21560369 0.87545317 2039583
0.1776772 0.21558166 0.87536371 2039583
0.17923823 0.21555965 0.8752743 2039583
0.18082501 0.21556868 0.87531102 2039583
0.18246369 0.21563891 0.87559617 2039583
0.18410823 0.21571478 0.87590426 2039583
0.18575394 0.21579075 0.87621272 2039583
0.1874008 0.21586674 0.87652129 2039583
0.18904881 0.21594279 0.87683004 2039583
0.19074064 0.21606721 0.87733525 2039583
0.19247977 0.21624272 0.87804788 2039583
0.19422325 0.21642019 0.87876856 2039583
0.19598189 0.21661156 0.87954563 2039583
0.19774364 0.21680327 0.88032401 2039583
0.19961362 0.21710964 0.88156801 2039583
0.20150895 0.21743852 0.88290346 2039583
0.20341006 0.21776842 0.88424295 2039583
0.20535825 0.21814319 0.88576478 2039583
0.20748307 0.21869837 0.88801903 2039583
